ply
            format ascii 1.0
            element vertex 16142
            property float x
            property float y
            property float z
            property uchar blue
            property uchar green
            property uchar red
            end_header
342.560387 1412.843990 4685.663605 212 223 227
-3355.513763 1807.518578 2317.243385 49 54 50
414.838982 1397.420025 4742.930603 216 223 227
432.574892 1396.489429 4756.682587 210 196 194
3867.105484 -1456.062317 6466.056061 214 224 227
4065.166473 -1607.418823 6578.868103 57 45 59
2146.315002 -154.818738 5552.519608 186 190 221
-745.450354 1529.585743 4052.362442 131 174 167
-3286.667633 1736.663246 2508.019066 55 62 61
-819.425678 1509.218597 4030.556488 232 243 223
-819.425678 1509.218597 4030.556488 232 243 223
-857.415867 1515.097713 4010.067368 114 116 92
349.690175 1390.790558 4758.889008 63 54 69
-3384.843445 1784.058571 2492.302322 169 180 188
-860.631752 1510.789108 4031.673431 111 115 94
-11.567022 1431.964874 4553.106689 186 190 219
-997.653580 1504.020214 3956.930542 25 23 23
3210.929489 -1064.895344 6244.961929 86 87 101
-1050.772572 1517.558956 3979.377747 200 208 208
-1093.217850 1223.947906 3929.224777 37 38 36
-38837.869263 -12636.383820 -20135.049438 97 106 110
-554.800034 1468.948746 4291.732407 232 236 245
210.336685 1400.587082 4745.354843 225 233 238
52.176005 1444.974995 4661.268234 149 153 125
52.176005 1444.974995 4661.268234 149 153 125
20.124535 1410.039806 4648.085785 56 49 54
-363.963771 1447.436714 4445.371246 212 223 227
225.299191 1381.758690 4781.037521 187 190 219
-5233.258820 1972.440147 1689.310837 73 85 87
-3637.996674 1738.327789 2609.268188 181 194 203
-5307.229614 1904.016495 1672.127151 45 52 55
-15.210541 1414.361954 4672.305298 64 57 52
-80.666304 1424.361134 4653.184509 44 37 52
-1078.232002 1517.981720 4108.166885 200 211 215
-1396.115112 1503.737259 3946.285629 139 151 161
-3689.544678 1705.760765 2691.582870 179 192 203
40.501499 1419.181919 4763.515472 205 216 220
-762.377405 1468.428326 4337.561798 214 225 229
-2816.444969 1638.205147 3242.635727 190 202 206
-903.986931 1434.725380 4263.817978 199 211 217
3266.135025 -879.007244 6171.841812 130 141 155
-757.702541 1464.256001 4362.020111 234 240 240
-2615.576363 1616.828156 3397.045135 77 83 102
-3681.515503 1751.841545 2864.087296 186 195 204
-3487.369919 1712.292671 2970.654106 31 47 47
-3221.252060 1685.993195 3108.993721 180 196 202
-967.552757 1499.901867 4313.367462 229 211 203
-2361.170197 1570.507526 3613.300323 204 217 219
-3312.655640 1682.537651 3153.864288 178 190 193
-879.547310 1487.626839 4392.668152 226 233 232
-668.805695 1443.066502 4495.631027 217 198 194
-741.120863 1460.410881 4479.698944 134 133 158
-137.567556 1465.903187 4802.919006 156 167 171
-647.236776 1453.605843 4551.091766 163 168 200
-3179.940987 1652.820778 3315.350723 196 208 211
-677.077484 1460.960388 4547.914124 62 49 55
-759.777546 1451.965332 4511.129379 203 172 172
3318.215561 -1139.809418 6224.531174 103 149 169
-297.248268 1485.963726 4747.449112 154 158 183
-770.739126 1449.607182 4510.661316 76 54 52
-3077.318573 1643.989944 3398.076630 72 74 73
-2230.242538 1634.474564 3824.943924 204 216 220
-3516.481400 1713.004303 3209.394455 139 145 127
-744.826841 1475.478935 4551.964569 40 45 55
-778.708315 1471.553421 4535.232925 125 195 214
-498.150873 1467.116928 4673.770905 23 18 29
-498.150873 1467.116928 4673.770905 23 18 29
-1625.308800 1506.238365 4139.595413 39 40 45
-1625.308800 1506.238365 4139.595413 39 40 45
-1889.933968 1527.329540 4021.696091 154 156 134
-552.157497 1482.868385 4663.501740 61 62 77
-30054.016113 -10648.766327 -10832.166290 214 225 223
-30054.016113 -10648.766327 -10832.166290 214 225 223
3824.464035 -1097.131443 6446.750641 14 18 25
-1729.099655 1517.848015 4164.301682 92 90 87
-1065.453815 1519.935417 4488.610840 41 38 43
-1943.992424 1504.477501 4094.227600 207 193 188
-41465.933228 11863.807678 -12694.120026 66 96 103
-30162.985229 6464.912415 -8137.911987 38 18 17
-29067.156982 7217.655945 -7537.476349 36 18 19
-3687.598038 1653.307724 3341.036606 170 177 194
-31985.501099 -553.284454 -9688.022614 40 24 17
-1516.107845 1517.482185 4317.996979 190 194 200
-1917.964935 1525.515938 4149.368286 65 58 60
-42413.983154 -962.977219 -14284.082031 176 201 197
-40109.335327 9076.045227 -11852.608490 55 61 60
-2389.809608 1562.561226 3977.534103 98 103 112
1249.631214 20.449163 5295.564651 105 115 130
-42295.681763 -12160.501862 -14925.222778 40 66 80
-37708.108521 2309.646797 -11233.933258 42 19 13
-2938.054276 1645.416641 3813.362122 86 84 86
-2802.081871 1653.486061 3881.509018 168 177 180
3782.872009 -663.800240 6256.623459 74 96 95
3866.348267 -673.336792 6287.173080 31 10 11
24936.065674 9395.558929 16132.937622 179 184 187
-24054.872131 -9683.246613 -5406.029892 175 201 195
-29045.413208 -13272.557068 -7631.518555 170 195 191
-27178.866577 -12799.214935 -6513.088226 167 198 197
-27854.150391 -13260.961914 -6580.792999 176 201 198
-15067.111206 -8662.550354 -1354.684067 83 102 107
-15883.044434 6362.604904 131.532383 178 189 192
-14867.430115 -1686.153793 -414.847994 8 26 35
-23413.854980 -3156.963158 -3505.692291 69 84 80
-15492.285156 -5140.446472 -825.648022 125 159 163
-14174.530029 -7236.154938 -517.525053 69 88 91
2655.670929 -519.021654 4770.673370 91 98 107
2323.003578 -417.719984 4235.212708 81 89 96
2295.501137 -384.726977 4193.434143 3 10 19
2632.102203 -493.825436 4738.065338 10 17 26
2314.785385 -406.576014 4224.085236 3 7 15
2284.064484 -369.661212 4180.485916 0 2 13
2284.064484 -369.661212 4180.485916 0 2 13
2369.732285 -493.346167 4311.314774 82 90 99
2272.365379 -356.566644 4168.349075 16 24 32
2693.916702 -504.425859 5010.635376 141 147 149
2849.815559 -483.943272 5132.205200 164 190 197
2613.762283 -267.461181 4921.910477 89 98 87
1332.624817 1655.346680 2995.335579 127 169 190
891.298866 1844.792747 2368.061638 201 215 221
1278.281689 1638.133240 3114.194298 206 218 224
1297.307014 1597.594166 3354.061127 57 69 91
1297.307014 1597.594166 3354.061127 57 69 91
3729.040527 -658.659554 6410.063934 32 39 48
3748.501968 -696.806717 6432.182312 65 71 76
3724.699020 -635.669994 6401.394653 3 10 19
3724.504852 -617.785740 6402.717590 3 7 15
3751.994324 -674.116230 6438.619995 19 26 35
3731.104660 -604.276466 6411.386108 10 17 26
1185.959053 1589.225197 3380.937958 114 173 204
1192.241859 1590.815353 3394.744873 59 109 137
1198.963070 1599.257660 3407.932281 71 116 145
966.096306 1657.793808 3076.075935 46 43 60
1076.130009 1625.708199 3244.787598 197 215 227
1115.188980 1612.914658 3309.100342 68 122 155
357.398129 1846.561050 2186.772728 178 187 212
961.950588 1653.059959 3089.441872 153 171 200
437.760544 1814.583588 2344.437981 27 28 30
593.299675 1753.713036 2623.982048 47 47 31
-6909.873199 3308.932114 -8222.022247 73 81 88
983.100414 1632.667542 3236.858368 128 172 197
779.044056 1690.554619 2948.579025 40 28 20
671.441603 1712.985420 2831.667519 207 219 226
2131.301689 120.018232 4776.191711 116 161 155
939.814949 1633.734894 3256.319809 86 68 91
1016.771126 1606.907082 3364.108276 166 173 202
-193.977451 2454.832840 1795.275307 133 131 115
981.488991 1605.300331 3359.142685 117 104 128
3904.076767 -596.868181 6582.814026 3 10 19
5122.578812 -772.342777 8230.243683 81 89 96
5122.578812 -772.342777 8230.243683 81 89 96
5153.920746 -854.859161 8262.870789 3 10 19
5148.730850 -803.741455 8259.383392 3 7 15
5138.111496 -732.866526 8250.666046 80 92 98
5152.798080 -763.275719 8261.361694 10 17 26
3918.949890 -563.216829 6588.318634 79 89 96
12149.076843 -2832.389069 17630.819702 32 39 48
5186.181641 -944.574738 8271.891022 69 78 87
11840.994263 -2183.172607 17234.066772 81 89 96
11840.994263 -2183.172607 17234.066772 81 89 96
11671.612549 -1133.244133 17086.607361 90 98 105
5155.204391 -526.798391 8264.297485 68 76 83
11571.362305 -949.555016 16971.377563 7 8 26
2270.419312 -33.594531 4903.502274 205 216 220
11601.129150 -249.602699 17057.388306 14 20 27
11601.129150 -249.602699 17057.388306 14 20 27
11869.203949 -1624.073601 17248.265076 81 89 96
11869.203949 -1624.073601 17248.265076 81 89 96
55530.694580 -18070.143127 75169.506836 77 85 92
46917.199707 -17118.392944 63607.281494 66 77 81
54177.008057 -6516.810608 74134.674072 7 8 26
55073.663330 -7663.571930 75186.322021 90 98 105
53830.487061 -2348.860741 73995.904541 14 20 27
12740.080261 -3285.610199 18161.085510 5 5 15
50484.292603 -12259.484100 68326.165771 10 17 26
55541.522217 -10521.942139 75135.729980 81 89 96
938.244629 1613.727379 3410.538101 198 211 221
938.244629 1613.727379 3410.538101 198 211 221
945.809078 1293.978024 3386.838531 176 193 200
944.901085 1293.152905 3386.322021 176 193 200
9214.333344 -5744.783783 12580.019379 68 88 99
961.517525 1586.882496 3524.746323 136 153 178
1065.098858 1546.642208 3658.161163 166 178 212
64244.464111 18024.635315 86462.969971 126 132 137
-41.392916 1869.806099 2291.544533 117 119 97
293.588257 1735.380363 2732.292557 204 216 224
35641.098022 9351.764679 48331.329346 126 132 137
295.787549 1739.310265 2755.315781 188 197 216
277.302837 1741.019821 2732.952499 56 48 58
324.182081 1722.735786 2807.410240 32 34 46
612.269402 1654.839706 3171.030045 50 48 42
-490.469742 1904.419899 1846.795845 200 212 216
-490.469742 1904.419899 1846.795845 200 212 216
-501.334429 1888.956451 1834.145546 213 226 230
-522.115469 1888.675880 1820.773125 20 22 32
484.516716 1689.148712 3049.892044 176 193 200
999.478817 1562.800312 3687.630463 189 206 219
307.326102 1712.728691 2870.937729 29 34 47
307.326102 1712.728691 2870.937729 29 34 47
240.283680 1721.627808 2801.909828 69 66 87
-614.784193 1893.178749 1797.694397 61 90 107
242.428398 1723.481560 2821.273422 63 65 83
-640.311193 1892.018127 1805.884171 143 171 180
140.012455 1739.235878 2742.675209 199 212 222
56.023103 1727.968597 2664.866447 122 124 105
56.023103 1727.968597 2664.866447 122 124 105
-664.736271 1886.638260 1830.183601 205 217 230
659.556627 1383.828068 3342.790222 179 191 195
204.077005 1714.448547 2855.621147 163 180 193
-763.167953 1896.125793 1753.946304 51 59 74
304.127645 1695.189095 2997.923470 38 42 45
196.937191 1726.061440 2876.745415 145 159 176
-754.339600 1889.668465 1792.459679 30 35 46
2858.238411 -498.238802 5211.880875 179 183 188
368.764496 1682.412720 3108.607864 186 201 209
71996.966553 19208.259583 87309.790039 104 113 117
405.210781 1087.870312 3106.526566 27 40 45
304.947758 1684.609795 3062.512589 58 55 57
304.947758 1684.609795 3062.512589 58 55 57
77096.966553 19793.601990 92616.448975 126 133 136
74810.363770 19984.793091 89563.079834 107 110 115
76721.661377 20351.930237 91719.482422 55 60 63
-560.555553 1012.594223 2060.831070 114 131 140
75069.750977 21371.846008 89038.500977 147 156 159
77348.608398 21061.068726 91488.757324 134 144 144
3260.141754 -765.281200 5608.642197 57 69 91
3260.141754 -765.281200 5608.642197 57 69 91
249.875474 1693.658447 3071.639442 41 42 48
243.829346 1556.695461 3054.674721 105 127 138
-939.455509 1890.602684 1777.964592 32 36 45
1981.509590 -459.318399 4702.210999 1 14 28
5796.763992 -23.795033 8515.453339 120 125 128
12934.262085 27.744535 16287.149048 133 140 143
-357.160234 2327.735901 2564.583588 41 38 46
-371.537542 2338.937759 2570.088387 170 167 168
263.924718 1669.205856 3188.041496 119 135 142
1836.703110 476.751995 4746.999741 187 199 205
441.632843 1629.260063 3390.529251 187 203 210
7161.962128 -4138.459015 9759.407043 71 88 102
-1688.845444 2023.709106 1273.290157 158 170 184
-1214.508533 1892.290878 1782.246971 26 38 39
-1268.378258 1896.095467 1758.113670 175 198 198
941.032887 1496.318245 3992.075348 116 145 159
262.438679 1644.184113 3359.053802 132 131 132
1921.149254 153.747523 4676.824570 52 65 79
236.850548 1632.287216 3403.467178 148 155 158
1327.792835 319.116998 4314.881897 113 158 169
-2613.215828 4076.049805 932.608891 167 190 197
-2638.204575 4096.305847 914.992046 167 190 197
315.440297 1412.736988 3491.146469 236 245 248
6091.971207 -2997.620773 7848.040771 181 194 199
2308.063698 104.869044 4842.050552 141 155 187
1653.599358 187.722242 4403.652954 146 154 172
146.463895 1612.791634 3482.348251 149 160 168
154.435182 1616.806602 3494.089127 51 53 62
1790.822029 380.671835 4868.861389 131 132 116
815.120697 1467.506981 4154.440689 116 122 105
-397.924995 1478.647614 3192.705917 146 163 165
-1602.480125 1815.430260 2234.550285 45 67 74
-516.663456 1494.710732 3115.133286 32 43 44
-506.599188 1494.567680 3142.992020 87 151 154
1558.362770 271.939230 4654.333115 164 177 185
-39.371568 1551.589489 3616.132736 107 118 126
-22769.158936 13831.176758 -13192.994690 164 161 163
-23200.332642 14068.717957 -13495.649719 164 161 163
147.680676 1565.116119 3781.088638 199 210 217
-507.804155 1483.808708 3244.673157 101 141 144
371.904230 1524.165916 3963.272858 196 211 221
371.904230 1524.165916 3963.272858 196 211 221
-274.847698 2139.604187 3489.315414 194 208 215
387.663960 1506.754303 4001.815796 185 199 222
-3220.594406 1990.341187 1206.053638 40 46 42
-493.121243 1461.949921 3327.357483 60 65 64
3425.279999 -746.768141 5720.238876 27 34 37
-129.343486 1603.782654 3688.448715 169 188 192
-199.068952 1441.422081 3623.512650 103 117 123
-162.021410 1594.778252 3681.052017 37 39 50
-155.465603 1601.824379 3689.825058 175 187 198
238.773918 492.196131 3855.189896 45 55 53
-1452.993107 1743.790436 2741.193199 42 52 49
-238.922071 1590.115070 3677.908707 62 70 82
19867.924500 390.333033 17847.203064 206 222 230
19867.924500 390.333033 17847.203064 206 222 230
-89.190412 1566.222858 3804.688263 179 193 205
262.177372 1497.373772 4059.907150 189 215 236
257.038045 1508.303165 4058.173752 91 131 150
103.022516 1527.009392 3987.606812 76 113 132
1035.119534 735.608292 4553.022385 217 228 229
-3719.071579 1981.191826 1418.614483 102 107 108
-3719.071579 1981.191826 1418.614483 102 107 108
-257.401681 1562.875366 3795.949936 50 50 66
-325.307846 1573.411846 3757.448578 191 208 211
-201.370120 1555.233288 3844.637680 194 209 221
-1218.233490 1667.002296 3154.954910 133 145 161
2363.586044 -154.871082 5074.741364 113 137 152
333.391643 1485.127449 4214.439392 137 179 202
524.163675 1451.336575 4378.147888 34 33 43
-3868.791580 1949.185753 1537.187195 92 96 97
160.951233 1713.513756 4183.646774 180 187 210
-10657.993317 -4039.985275 -3548.388672 48 60 64
-1898.608780 1716.122246 2869.590187 120 132 145
-59.159982 1520.001507 4052.544785 50 45 52
605.751896 1420.841217 4514.587021 196 216 220
-1060.735512 1590.263939 3480.656433 18 20 21
-1073.962116 1556.243992 3493.896866 20 20 20
-1057.556820 1471.557808 3510.162354 6 5 5
-1061.454678 1455.018520 3511.122131 76 74 74
-3433.004761 1845.359039 2094.474411 157 173 178
857.804394 277.867007 4535.246658 22 34 48
-1016.304874 1584.491539 3582.379913 181 185 212
-3359.588242 1834.722900 2174.283791 46 53 47
-3359.588242 1834.722900 2174.283791 46 53 47
-1060.081959 1459.403324 3556.824875 74 77 78
-549.502850 1549.620914 3880.381012 31 29 35
1110.343361 -80.613506 4570.518875 72 113 134
-1050.676250 1439.009762 3587.690353 118 119 120
-551.072931 1549.257088 3911.634445 37 42 42
654.203939 1401.097965 4621.372604 41 40 44
-1051.921844 1399.456310 3608.562088 234 232 234
-1046.245098 1401.907825 3616.938400 35 34 36
-1047.752762 1480.937767 3631.533813 15 15 15
-1047.752762 1480.937767 3631.533813 15 15 15
-1051.660442 1490.709209 3635.797882 124 124 124
178.544080 1462.028313 4367.304230 84 94 78
-651.867914 1543.061447 3898.826981 203 215 219
-2561.091805 1725.578117 2857.009125 55 66 64
-776.772404 1549.800491 3888.792801 209 215 238
-663.159561 1535.939217 3957.272339 54 50 51
-3460.538864 1798.990440 2417.109871 45 55 53
-3934.063721 1850.349426 2160.293198 161 180 195
255.317307 1380.565453 4378.429413 196 208 216
-44.760859 1480.504131 4328.737259 121 137 124
-1007.937145 1557.757187 3805.178452 53 66 68
-1010.780430 1575.669861 3811.611557 100 101 117
15.843485 1299.147129 4352.206802 41 35 55
-3950.762177 1831.707954 2222.928047 158 181 195
120.313144 1452.514744 4461.737061 87 97 85
109.049368 1445.583725 4456.019592 140 183 198
-2854.380226 1732.066536 2883.699226 171 185 191
-2566.770554 1687.711525 3052.767372 45 43 49
533.976698 1394.291306 4689.873505 64 62 51
-59.944648 1469.266701 4379.607773 153 159 136
508.886480 1393.460178 4676.766968 203 214 221
-2497.399712 1495.936871 3091.109848 169 182 191
1568.052578 390.276861 4909.697723 116 121 105
-32285.415649 -20220.063782 -15198.098755 99 105 110
2975.756454 -480.484915 5356.372070 18 44 46
4485.179520 -1389.223862 6165.650177 169 161 163
-3871.855164 1787.518692 2489.808083 31 42 56
1340.689850 623.349762 4766.949844 180 187 210
574.871016 1382.295132 4757.847214 61 57 55
586.275148 1381.286812 4769.400024 192 203 210
-3251.742172 1735.144806 2836.642265 39 60 65
-881.572437 1517.983341 4056.507874 205 209 187
-880.316067 1508.389759 4091.646957 188 192 175
-2625.806046 1659.572029 3244.501114 60 87 103
-779.401827 1493.205738 4206.749725 35 40 40
-3034.069252 1679.402542 3147.330666 36 43 52
-3034.069252 1679.402542 3147.330666 36 43 52
-3560.812378 1732.037354 2902.463150 167 185 188
5245.493317 -2103.778076 6167.449951 164 173 184
-784.308815 1496.095562 4213.613129 138 138 129
302.244425 1397.261047 4721.081924 162 172 203
356.786656 1394.828224 4763.687897 171 179 215
8031.732178 -4311.235046 7673.211670 127 125 116
-3025.066948 1674.334908 3251.142502 109 116 103
-3358.763123 1681.076050 3144.289780 56 56 59
-4022.151184 1741.710854 2851.834297 156 169 182
472.546434 1378.754330 4852.968979 132 141 163
-4098.901749 1745.108986 2824.562836 54 58 61
-4098.901749 1745.108986 2824.562836 54 58 61
1556.309605 410.431194 5007.346725 65 62 51
-4332.692719 1760.263062 2797.921371 67 73 83
-2427.918434 1599.491215 3624.573517 179 188 202
-649.863720 1469.606686 4396.713257 50 58 63
-3583.980942 1693.350220 3138.304520 54 66 65
-3936.420441 1699.835396 2989.851761 176 187 182
-3931.978989 1718.972015 2995.282173 66 75 67
-3931.978989 1718.972015 2995.282173 66 75 67
-79.329324 1423.130703 4653.399277 32 31 41
-3570.005798 1697.654533 3153.709412 167 182 185
-731.661749 1471.535873 4374.828339 57 48 54
-29325.793457 -9082.326508 -9353.414154 29 53 67
-757.006836 1473.944283 4375.453186 212 202 204
-2369.981194 1591.703320 3694.943619 67 74 77
-812.427807 1416.562748 4357.874680 157 214 229
-3463.289642 1670.510101 3248.423386 176 175 174
-631.778622 1463.452721 4452.556229 183 194 220
-2320.275497 1580.576897 3743.917465 61 63 59
-4154.109955 1732.990074 2981.998062 72 81 80
-1529.882908 1153.364468 3995.884705 202 213 219
-3429.160309 1675.050926 3295.928955 87 88 86
-2658.948326 1619.778633 3632.256317 193 207 213
-30616.812134 3653.017807 -7656.330872 40 78 83
-3228.627396 1653.103828 3439.956665 164 166 162
-3481.515121 1662.694359 3373.720551 78 79 81
10898.825073 -1188.135433 8466.557312 40 49 53
-2367.932510 1567.814827 3865.108871 22 34 48
-2367.932510 1567.814827 3865.108871 22 34 48
-40930.746460 15156.195068 -9867.559814 169 182 191
-2498.076820 1575.641918 3842.636490 80 91 97
-748.501921 1475.004292 4522.718811 50 44 44
-2712.773323 1590.681934 3766.947556 74 81 80
-3208.641434 1626.123428 3586.809921 203 209 212
-3150.535202 1624.390030 3614.616776 77 73 75
87.009490 1183.898544 4704.254532 230 228 229
3870.179749 -1163.705730 5983.335114 99 100 91
4175.950241 -410.840225 5805.460739 182 186 176
-28902.914429 -13473.461914 -6929.022217 108 137 138
-15118.519592 1676.967812 -107.007241 1 14 28
-14870.014954 -8637.366486 -1287.613678 81 100 105
-14174.874878 -837.220955 -41.884258 32 58 68
-15103.846741 -832.216549 -309.874916 32 58 68
-14845.010376 -1949.379921 -310.480452 50 87 104
-14992.539978 -1882.174110 -334.742665 60 99 118
-15343.225098 -4928.085327 -703.857088 69 78 75
-14734.312439 -9187.138367 -943.957901 75 94 99
-16128.683472 -9915.666962 -1414.441204 75 94 99
3259.310532 -588.350058 5523.923874 181 204 216
1061.855412 1776.535988 2470.759201 130 137 162
799.861002 1885.983467 2253.539848 124 133 148
724.995804 1830.541420 2271.756744 59 53 75
724.995804 1830.541420 2271.756744 59 53 75
3198.563957 -420.446730 4645.534134 103 110 113
3111.940384 -374.742270 4576.787567 1 1 1
2783.933258 -312.116861 4475.041962 53 72 74
673.171186 1824.098396 2299.731064 126 133 159
993.164349 1718.109512 2720.855713 169 182 191
988.136005 1723.685455 2717.237854 169 182 191
2984.461975 -398.364329 4452.787399 195 207 213
3001.715088 -403.575993 4468.124008 199 211 215
1999.950790 459.306526 3669.204712 198 211 214
255.609560 1910.663986 2035.317612 147 165 172
255.609560 1910.663986 2035.317612 147 165 172
337.631011 1846.239281 2173.246193 13 17 31
365.577030 1825.365639 2220.964241 173 190 191
-51.042581 1927.323723 1892.671776 183 195 198
-42.604265 1927.153015 1910.125732 46 60 59
-111.163962 1937.345505 1845.948601 79 96 107
624.429798 1757.071495 2611.000061 165 179 185
614.096832 1754.355240 2628.642464 33 25 19
614.096832 1754.355240 2628.642464 33 25 19
1035.330868 1660.580826 3052.035713 156 175 182
2633.534241 -66.273493 4501.643372 83 103 114
2536.026764 35.710827 4421.463394 207 217 223
593.074369 1757.615280 2647.703362 88 93 78
159.926510 1837.743568 2231.676483 98 103 80
215.966797 1828.167534 2287.689400 14 21 18
720.749092 1727.615356 2808.470154 138 144 179
-177.113938 1902.558517 1965.260506 182 196 203
808.694458 1679.323959 2978.312683 155 169 176
506.277514 1740.812683 2717.874908 45 45 42
-610.861826 1920.377541 1734.608078 188 204 210
825.392437 1671.509552 3036.713791 159 177 184
-565.393972 1913.318062 1798.100281 158 163 185
-603.572369 1888.228226 1769.495583 187 198 214
239.792919 1770.890999 2558.677864 172 187 188
239.792919 1770.890999 2558.677864 172 187 188
-1153.322506 2041.414452 1356.453228 71 94 102
970.424080 1636.754036 3225.730515 90 114 134
-547.104502 1886.693192 1903.627396 79 83 101
481.964016 1721.538925 2840.367317 29 33 30
-762.622786 1908.494949 1770.159912 163 170 191
-558.008957 1882.828712 1963.331413 176 192 198
2016.592407 517.971659 4015.713882 116 119 111
-618.255997 1884.996796 1922.326088 183 195 202
-608.528948 1880.079651 1943.084526 176 196 201
976.723862 1625.990105 3295.425797 114 112 136
-567.443275 1878.422165 1990.709305 15 14 23
1566.444588 418.798733 3714.872360 18 24 37
324.923801 1736.888123 2782.194519 147 161 166
-315.126944 1821.573257 2249.679565 114 115 99
-343.504357 1822.911453 2272.891045 179 193 199
992.124462 1605.773354 3373.395920 82 67 80
1001.724052 1604.301071 3383.819580 154 148 172
2465.440369 103.073573 4467.952728 136 137 119
81.481349 1771.383476 2666.756058 157 173 184
982.932281 1599.593925 3404.047394 158 166 195
266.347456 1728.916550 2838.645935 140 151 173
57.671392 1764.875221 2676.408005 49 53 44
292.615962 1722.469902 2872.173119 145 165 176
129.239225 1750.687027 2746.060371 14 19 29
272.144508 1725.839996 2859.484291 26 27 34
272.144508 1725.839996 2859.484291 26 27 34
962.999821 1600.264740 3408.319092 51 39 53
112.288952 1751.194191 2745.518112 137 148 161
-833.115864 1876.218796 2004.165268 85 122 122
270.639563 1725.007057 2873.815727 141 152 167
2131.389809 157.685566 4236.788559 39 34 31
-522.302103 1824.353790 2265.784645 16 8 9
972.973061 1579.329872 3436.047363 167 188 196
2365.978241 136.720657 4340.416718 66 72 87
-2487.941933 2248.426819 784.294033 121 131 145
256.950355 1715.665627 2919.479370 18 17 32
217.575073 1725.127792 2901.365089 114 128 149
419.208050 1687.425041 3065.142632 139 162 168
-2239.778709 2052.775002 1067.225647 25 30 41
359.487748 1693.997574 3036.781502 9 12 20
-1482.864285 1955.335426 1663.872337 54 91 89
358.014631 1690.495682 3047.278214 134 132 132
515.379429 1672.009277 3168.494987 170 180 190
-1309.397221 1897.826576 1812.636185 28 49 48
247.220898 1710.601234 2991.321754 151 168 176
311.757064 1694.587898 3040.486145 142 159 163
-909.102535 1829.349518 2141.193008 158 175 184
-1686.678696 1957.796478 1599.642372 40 66 69
-1119.829178 1863.249779 2021.193886 24 34 39
970.972252 1569.931126 3552.000809 62 59 69
2264.951134 32.212299 4341.697311 50 51 61
-2008.783340 1981.159973 1387.134075 37 43 54
-1552.709675 1912.461281 1742.270660 21 38 40
-2104.528236 1968.061256 1346.735859 66 77 86
239.676690 1700.982094 3045.777321 82 90 94
-1526.518917 1918.129158 1773.076820 127 152 157
1888.687706 -479.320383 4036.643600 17 30 34
363.347459 1673.757553 3139.177704 114 147 164
266.851664 1694.056320 3072.207832 76 74 78
-2118.502808 1978.488541 1359.890270 153 163 174
-1897.338867 1944.956970 1534.021187 31 48 56
-1471.922874 1908.097458 1864.379883 126 147 158
2382.705498 194.686401 4509.727478 208 215 219
246.863198 1556.761742 3121.648979 74 92 102
2574.907684 -77.512151 4360.704041 66 89 107
241.010499 1541.121483 3122.801018 84 102 112
241.557240 1549.580383 3126.580238 132 151 160
342.438769 1658.497047 3229.663849 23 18 23
241.521573 1539.581680 3151.086807 71 89 100
-350.072384 1570.434093 2750.817299 13 29 27
-1386.555386 1856.529999 2059.422684 124 151 161
675.573254 1600.928688 3462.209320 117 119 105
241.005325 1561.002636 3159.869194 93 111 118
-1346.044922 1851.275063 2094.677925 118 140 151
2176.138878 135.458124 4361.769104 138 143 124
273.370266 1675.026321 3201.042557 150 163 171
1455.208778 998.877239 3961.159897 57 63 57
236.973906 1743.690681 3189.361000 23 18 23
-1340.471745 1846.141243 2120.129013 27 35 53
307.835746 1660.908508 3234.982300 149 160 168
-1156.371021 1813.788986 2249.483490 126 144 158
2383.117485 -2.063514 4364.938354 85 93 111
-1154.668903 1819.294739 2262.119675 14 20 33
-358.993578 1561.502838 2793.763542 61 127 124
248.373008 1665.638733 3217.556381 121 129 136
1026.281071 892.058086 3693.795395 135 147 149
-342.362499 1548.040867 2835.335159 13 50 46
7556.217957 -3988.608551 7316.179657 162 178 180
2368.984032 127.028644 4424.427032 58 82 81
-2442.021942 1940.331650 1528.848553 31 48 61
3529.206467 -549.439049 4865.578842 33 35 35
-2547.752380 1962.887573 1475.846386 86 126 144
-2464.277840 1956.988525 1553.055859 142 159 167
-1683.515549 1850.384712 2069.610405 15 47 51
496.859312 1602.974510 3460.678101 169 179 189
-2426.200485 1932.933998 1612.663269 30 42 55
-2835.342026 1977.091026 1353.692627 45 64 67
-2885.148430 1996.540070 1329.228687 45 64 67
-1484.737110 1813.603973 2233.402061 125 148 157
264.411163 1543.385792 3326.948166 12 26 40
264.411163 1543.385792 3326.948166 12 26 40
-2592.104340 1933.706284 1612.082672 45 85 104
-3163.881493 1982.520866 1294.487476 143 157 154
245.973229 1636.522484 3400.095367 37 28 31
245.973229 1636.522484 3400.095367 37 28 31
321.343541 1439.840221 3447.116852 139 147 146
905.674362 1530.749702 3820.169067 95 102 92
296.252322 1617.513275 3467.288971 30 20 26
45.367309 639.716339 3237.892151 0 2 15
271.314836 1620.235825 3486.694336 164 174 184
3789.097214 -502.243280 5062.813950 23 49 61
928.525639 1508.463764 3900.464630 92 97 89
155.519140 1609.485054 3470.210648 148 162 168
2013.237000 461.607075 4410.558319 169 171 205
814.497662 1539.624691 3856.776810 96 123 121
159.600234 1625.647354 3500.403595 134 144 161
2734.880066 -208.107591 4498.524094 145 155 174
2734.880066 -208.107591 4498.524094 145 155 174
624.414444 1563.568211 3770.870590 165 182 191
-16.722360 1634.566307 3441.876221 145 155 162
-71.425396 627.950239 3337.308502 101 114 124
45.276463 1445.079517 3530.681610 108 119 123
-2226.108360 1795.488930 2380.741119 69 86 102
5698.329926 -2491.664505 6109.561157 134 144 173
-564.312172 1477.529430 3255.240631 15 42 42
-27.090460 1619.364357 3548.034286 160 171 179
2033.877373 402.966070 4491.212463 206 218 224
440.467310 1543.173981 3847.946548 98 100 101
7889.467621 -2407.384682 6668.067932 158 170 176
101.579547 1597.193813 3712.995529 177 191 199
4671.401215 -1167.931366 5423.021698 21 11 14
156.014466 1580.097771 3751.218033 187 205 211
153.363848 1582.557201 3750.708771 187 205 211
-590.795994 1452.000999 3388.170624 144 155 157
539.624977 448.979902 3827.028656 166 172 188
-34171.832275 -14593.713379 -14030.587769 104 112 118
132.607818 1573.635674 3752.376175 182 198 205
-38184.646606 -16123.507690 -16000.775146 104 112 118
-83.588815 1600.722694 3669.623184 35 35 39
-83.588815 1600.722694 3669.623184 35 35 39
-2122.125626 1727.523994 2757.844543 33 43 59
477.152681 1519.243050 3952.324677 180 196 203
542.985535 1517.625427 3982.240295 38 35 33
-2599.761200 1761.155510 2578.846359 52 56 69
563.728380 1529.265118 4009.392166 193 206 213
-189.479554 1590.762615 3689.870834 22 26 34
-3398.138809 1839.367867 2303.623009 159 172 174
355.335093 1530.959225 3950.218582 29 27 31
829.123402 704.271698 4061.307144 66 72 87
29.803371 1556.594181 3838.093567 24 24 37
1514.045525 339.646125 4346.648407 57 43 42
-229.448032 1566.889858 3733.016205 162 167 183
288.710451 1521.580029 3969.339752 160 169 205
288.710451 1521.580029 3969.339752 160 169 205
-236.984873 1573.065281 3767.228317 183 190 209
-28085.861206 -11933.853149 -9166.732025 100 117 120
-2500.048637 1720.263481 2843.050194 52 59 58
-116.650760 1559.895611 3825.960922 181 194 208
-3534.773254 1787.768173 2448.185539 25 34 45
-3635.446167 1785.112190 2429.590797 157 169 177
-380.222988 1571.687603 3741.201401 161 166 190
-2693.634605 1681.382370 2823.365974 22 37 39
-2594.023514 1715.080643 2890.811157 171 183 189
256.475234 1511.458015 4018.958664 19 19 41
-1089.426422 1560.984802 3488.161087 9 9 9
469.339609 1427.274513 4027.827072 24 24 37
-1039.048862 1591.795254 3530.732727 156 160 191
-1056.966019 1439.646244 3535.965347 13 13 13
-1061.985207 1441.965771 3535.023880 13 13 13
-3032.727432 1731.003571 2797.631645 41 51 61
-3030.805969 1724.369621 2813.238144 137 146 159
-1067.881012 1533.392906 3559.654617 209 208 211
347.118092 1498.064613 4103.574371 188 207 215
-1063.021469 1368.872070 3556.134415 124 125 123
-2457.102394 1685.672379 3068.459702 168 188 192
-1061.616707 1491.426277 3583.307266 185 189 190
-186.306262 1574.461365 3922.787857 179 197 204
-1061.419201 1410.147381 3578.874969 83 82 84
-1054.083538 1349.682236 3577.805710 224 222 222
359.537387 1495.587444 4130.513382 120 172 194
4715.498352 -1343.782997 5460.020065 176 188 194
-3222.783279 1706.628609 2808.843422 154 169 173
-3778.403473 1764.457321 2607.907295 109 135 147
-3778.403473 1764.457321 2607.907295 109 135 147
-2611.381531 1690.010643 3038.363266 173 182 187
-1059.364605 1399.270153 3595.973969 4 2 2
-1061.317921 1398.945045 3595.605087 4 2 2
-2569.014168 1684.584618 3069.079781 149 156 170
-1062.159061 1457.412910 3608.417130 9 2 9
-3445.407486 1646.568298 2750.096893 156 173 183
-1058.409595 1437.920094 3616.149902 179 175 175
-1053.012180 1447.052097 3620.104218 13 11 11
-1064.149666 1357.779598 3626.416397 3 1 1
11407.347870 -3992.652512 7582.448578 105 126 138
-4251.832962 1767.672348 2571.825218 72 81 91
316.994047 1473.530579 4186.068344 202 214 220
-3595.491409 1723.719406 2857.106209 100 110 120
-2867.962074 1682.879639 3119.284630 165 175 181
-3704.479980 1717.312241 2835.515976 73 82 91
-3704.479980 1717.312241 2835.515976 73 82 91
-575.650454 1545.357704 3904.026794 112 153 150
-621.055698 1550.140476 3891.962051 30 25 30
-3674.708176 1719.899368 2863.358879 58 69 76
-686.256266 1549.968147 3871.616364 193 207 213
-686.256266 1549.968147 3871.616364 193 207 213
-8.186917 1520.290852 4101.371384 173 187 204
-935.732555 1384.761333 3780.431366 4 5 6
-76.052219 1530.335331 4091.748428 166 179 201
-3455.451202 1695.490837 2981.298447 45 54 48
-3423.614883 1694.582367 2995.344162 33 47 44
-3340.677643 1701.262093 3029.316902 159 173 179
-2645.392036 1634.248924 3274.830627 184 195 204
4979.592896 -855.968094 5464.255905 112 122 122
-972.733402 2448.503304 3923.484421 132 145 176
-3016.814613 1664.834595 3171.016693 174 187 193
-2926.447678 1660.275459 3219.832993 54 57 43
-88.070226 1511.220455 4133.582687 69 103 109
-3916.600418 1712.645531 2917.398071 162 170 175
-3916.600418 1712.645531 2917.398071 162 170 175
-2647.821808 1636.345100 3380.702209 53 62 77
-2647.821808 1636.345100 3380.702209 53 62 77
-972.975063 1546.504879 3897.317886 19 14 21
-3250.426483 1684.856224 3213.140106 96 106 95
-2705.322075 1643.591309 3379.070282 174 185 193
-3430.117035 1676.791000 3158.586502 114 117 107
-337.996793 1514.357567 4103.413773 191 205 211
-2256.184196 1629.147339 3542.298126 191 204 209
-24649.522400 -11860.112762 -4673.685837 162 187 183
507.526064 1451.978016 4373.600769 216 224 233
-4168.183517 1717.177010 2981.918716 142 149 164
-2155.960846 1588.080120 3592.717743 128 130 113
-15967.933655 -9183.484650 -1676.886177 74 90 96
-3584.349442 1680.774307 3172.802353 169 183 189
-3415.444183 1672.193336 3240.309906 112 118 107
5962.170410 -1935.673523 5521.203232 95 110 126
-3471.168518 1670.619583 3227.983093 77 81 76
-888.210487 1530.031776 3993.585205 90 93 76
4094.606400 -969.859409 5081.425858 166 178 185
4034.941101 -517.285490 4939.370728 28 60 75
3381.353760 -475.558758 4726.407623 6 35 51
-31910.891724 -15528.364563 -6835.406494 62 79 83
-2375.687599 1602.040863 3587.298965 58 64 49
-3093.696785 1632.681656 3390.296555 110 111 98
-3093.696785 1632.681656 3390.296555 110 111 98
-3335.001755 1653.875732 3328.536606 171 180 184
528.946400 1445.086002 4424.454498 204 216 220
-2837.368584 1626.341629 3477.064514 175 187 191
-17875.175476 -8630.358887 -1879.725647 84 110 114
-2442.883873 1604.259682 3596.862793 196 207 209
-1086.355400 1529.312325 3980.839157 39 44 33
-42.341051 1491.615582 4278.016663 35 41 45
-76.077592 1493.310452 4274.122238 36 32 37
546.211243 1436.155891 4444.596100 136 138 118
-64.905840 1495.063400 4283.676147 130 135 125
-451.484489 1506.351471 4177.384949 201 213 219
-3283.676910 1642.889404 3399.814606 181 189 196
-3206.741333 1633.716583 3422.642517 194 203 206
-14739.343262 -7194.862366 -706.211853 57 82 82
5099.369049 -1392.134380 5338.545227 135 147 155
-14903.236389 -9489.871216 -989.534569 177 186 189
-3632.090759 1659.453392 3316.085815 179 188 198
-3717.365646 1668.075371 3295.399475 80 90 97
1956.837273 115.092492 4680.098343 27 48 59
-2393.556404 1593.164825 3658.919525 67 72 72
-14570.663452 -7127.833557 -585.695076 178 189 189
-91.710156 1521.811104 4305.937195 90 115 112
587.703180 1430.919838 4482.563019 21 26 25
604.700184 1431.124687 4501.362991 12 16 16
570.668840 1425.325489 4491.650391 130 134 111
-2747.911263 1566.484261 3640.348434 192 204 208
-3081.721687 1650.614166 3569.618988 192 204 207
4406.990051 -1408.493614 5208.369446 140 150 184
-3036.608505 1600.964165 3586.399841 189 170 165
-1185.246086 1536.871910 4074.274826 181 193 197
-3189.606094 1622.137260 3577.688599 86 83 81
-64.377367 1476.469612 4364.681625 141 149 132
4166.452789 -1004.847622 5074.187088 133 153 161
353.971481 1451.877403 4469.591141 205 217 223
148.942578 1454.553795 4418.872833 93 99 84
-3185.131073 1616.629601 3591.638565 184 194 200
32.636687 1478.581905 4403.237915 123 175 191
-60.568666 1475.478840 4393.654633 28 36 44
-3328.948212 1637.574959 3609.090805 186 198 202
-3316.963196 1643.792152 3630.876160 91 98 106
-862.410164 1496.988583 4213.390732 211 224 226
-2381.247520 1572.732544 3862.318039 52 55 65
-901.468754 1500.623608 4215.123367 152 153 150
5020.937347 -1549.471283 4983.087921 164 175 199
-2560.652351 1578.900909 3843.869781 74 84 92
10725.705719 -3226.682663 6392.337036 69 69 65
4601.216125 -1388.393211 5028.801346 62 68 69
5012.093735 -1261.632538 5247.466660 143 157 154
5012.093735 -1261.632538 5247.466660 143 157 154
-2091.530800 1553.632641 3978.536606 61 74 82
369.305634 1440.500546 4538.707733 206 218 224
613.121843 1405.387878 4595.108414 204 215 219
-715.324497 1492.890644 4324.504852 62 57 57
-715.324497 1492.890644 4324.504852 62 57 57
-733.029032 1471.792316 4331.381226 202 217 220
-945.737553 1491.970253 4293.143845 145 200 214
-1929.306412 1540.647221 4085.336685 72 79 65
-700.567150 1481.372452 4347.311020 209 215 220
-994.129372 1482.461643 4290.984344 150 201 214
-938.189316 1488.247776 4304.078674 46 51 53
-1899.972343 1543.805695 4102.954865 64 73 63
907.039070 1042.145538 4661.167526 138 142 118
-1909.403419 1532.412910 4116.110229 191 203 205
-1798.292923 1534.685993 4144.142151 70 77 72
-752.559376 1479.824352 4364.488220 159 160 161
-660.913658 1474.381256 4395.038605 54 57 68
381.399083 1402.146721 4622.445297 126 128 109
-1004.419708 1476.415062 4358.859253 206 217 220
-1004.419708 1476.415062 4358.859253 206 217 220
473.797226 1460.097027 4601.033783 138 141 119
-1960.416222 1618.366623 4209.680176 106 112 107
-424.490690 1462.152672 4495.385361 83 101 102
-424.490690 1462.152672 4495.385361 83 101 102
417.234230 1405.034256 4673.782730 195 209 215
417.234230 1405.034256 4673.782730 195 209 215
516.273594 1394.490528 4691.976166 202 189 189
-391.207981 1455.678082 4544.808197 216 225 229
-852.221966 1487.691116 4496.457672 56 56 56
4527.400589 -1305.498981 5101.219177 114 115 99
-71.604460 1429.948616 4650.237274 55 51 60
-90.958458 1431.041336 4652.347946 28 21 38
554.220533 1385.671902 4761.506653 203 183 180
496.120691 1394.956207 4758.636093 202 181 179
408.536720 1401.112747 4777.621460 185 189 219
15510.076904 -8934.480286 5738.570023 144 155 194
192.253304 1399.771595 4772.965240 188 196 225
3244.390488 -445.579767 4691.512680 2 8 10
435.793447 1384.654140 4854.052734 51 41 58
6916.194153 -2904.167557 5057.734680 187 205 211
-16049.485779 -2449.361992 3428.231430 151 163 165
-16048.332214 -2756.318855 3799.950409 182 195 198
-16438.053894 -2759.817886 3819.342804 35 47 49
-16489.591980 -2757.586098 3871.395493 175 190 192
-16489.591980 -2757.586098 3871.395493 175 190 192
-16501.184082 -2948.648071 3860.515976 2 8 10
-16501.184082 -2948.648071 3860.515976 2 8 10
-16646.176147 -2784.124374 3922.407913 90 105 108
5614.504623 -1855.989647 4902.573395 93 102 116
-17706.738281 -2615.805435 4177.107239 144 157 159
-17474.084473 -3300.724030 4130.231476 134 150 155
-15799.919128 8406.781006 5679.882812 167 176 183
-15644.282532 8266.783905 5688.426208 9 19 23
-15688.752747 8287.439728 5691.588593 9 19 23
-16199.801636 8410.407257 5764.966583 4 4 4
-16008.276367 8395.476532 5780.346298 133 145 150
-15658.297729 8359.591675 5820.419312 78 88 96
-16337.049866 8397.589111 5818.246078 89 98 101
-16337.049866 8397.589111 5818.246078 89 98 101
-13217.033386 7698.784637 5802.733994 38 40 48
-16132.432556 8390.149689 5865.897369 38 41 39
-16404.624939 8401.172638 5899.651337 4 7 10
-16103.868103 8368.946838 5900.334549 137 144 145
-13364.389038 7722.719574 5854.083252 122 129 143
-16140.487671 8489.935303 6008.961868 0 1 1
-13306.524658 7690.136719 5920.000839 67 73 86
-13306.524658 7690.136719 5920.000839 67 73 86
-15617.144775 8387.454224 6054.820251 9 16 20
623.832798 1841.935921 2279.537201 155 169 176
2585.285187 34.771648 3823.098755 119 126 105
245.143366 1917.829704 2040.316772 154 166 168
379.353070 1897.714233 2156.108856 135 140 171
2353.684235 239.563751 3472.845078 23 19 12
338.460684 1860.379791 2170.684624 142 149 176
326.861119 1854.597473 2192.717934 169 184 190
695.887375 1768.004799 2529.369736 162 173 181
332.766581 1823.011208 2282.712555 186 203 209
332.766581 1823.011208 2282.712555 186 203 209
-447.996664 1967.319679 1706.151772 135 142 161
162.437582 1798.859787 2158.634949 23 34 35
254.240084 1878.305817 2245.272827 186 203 209
254.240084 1878.305817 2245.272827 186 203 209
2898.536682 -400.358629 3804.131317 127 141 140
2839.791107 -381.753564 3771.282959 127 141 140
2834.552002 -380.077624 3768.350220 127 141 140
187.526011 1845.741463 2230.602264 170 182 186
187.526011 1845.741463 2230.602264 170 182 186
570.670891 1792.839813 2516.908264 88 88 70
570.670891 1792.839813 2516.908264 88 88 70
147.507071 1845.801735 2222.884941 101 102 82
-836.228085 2038.342094 1530.215931 142 149 152
617.926741 1779.443359 2574.043274 171 183 189
-718.373394 1973.803329 1627.961349 134 138 156
596.378469 1767.007828 2569.789505 42 39 34
596.378469 1767.007828 2569.789505 42 39 34
-701.334667 1960.091591 1654.394531 82 87 102
228.452730 1838.170624 2314.828491 173 184 192
228.452730 1838.170624 2314.828491 173 184 192
3118.566704 -384.553862 3939.881134 33 45 51
-541.160107 1922.329140 1800.794792 169 176 185
-541.160107 1922.329140 1800.794792 169 176 185
550.804949 1757.938004 2571.751595 170 179 187
598.007679 1763.161278 2618.756294 44 36 31
-350.691795 1897.795105 1966.302490 105 106 88
2496.486855 51.659268 3851.155090 206 220 226
-754.641867 1942.284966 1701.851463 69 75 99
-697.486019 1928.113365 1744.571114 177 190 200
3107.648468 -344.541001 3936.066818 120 127 130
-752.794790 1934.399223 1724.396515 58 53 83
-605.350161 1912.697601 1837.302399 68 72 97
-619.033718 1911.837578 1838.455200 147 152 179
2020.068169 200.900149 3471.995163 24 44 59
-565.600920 1893.223190 1887.993050 148 155 180
-715.852404 1934.779167 1789.148903 168 181 190
-715.852404 1934.779167 1789.148903 168 181 190
-762.992907 1930.508995 1785.467339 143 152 174
-714.037180 1920.077896 1820.160866 112 120 144
-1448.034477 2043.296432 1351.189899 21 44 45
-1031.798363 1960.517120 1638.420105 159 175 182
20.328559 1842.098618 2342.025185 96 97 77
-126.297617 1806.230545 2259.767342 178 186 194
-580.456543 2072.073746 1982.274818 102 101 81
-1514.556122 2054.319382 1369.631481 70 111 106
-1173.894787 1940.881157 1611.646461 154 170 177
597.532940 1737.691498 2760.967255 144 164 172
-2501.362991 2215.856743 808.510971 106 111 126
3104.702568 -316.852689 3942.799759 124 149 152
2491.107559 -84.164906 3646.055603 61 73 73
2516.959953 0.025463 3780.062866 181 192 196
647.185946 1720.909882 2826.723671 34 31 22
2613.358688 -18.487905 3690.930557 33 32 46
3830.788040 -521.175575 4371.697235 91 95 100
2450.996208 96.360558 3838.856506 166 174 198
2628.668594 -288.701987 3772.360992 23 36 50
-1675.914574 2017.300034 1414.287853 21 30 36
-2305.892563 2084.804153 1040.007114 140 149 158
-1418.340302 1958.995247 1587.697887 47 84 82
-1681.182098 2005.049133 1433.133793 149 168 175
2286.689186 -36.314291 3772.348022 12 11 14
-1300.119209 1945.003319 1729.017258 16 21 20
-2304.554939 2065.188599 1132.146454 45 53 67
-2732.538223 3012.741852 940.744114 137 140 166
-42.287338 1796.302795 2501.623154 163 175 181
442.277145 1728.945160 2792.663193 162 178 185
442.277145 1728.945160 2792.663193 162 178 185
-475.878096 1828.951454 2262.601662 153 176 178
-8947.223663 3959.602737 -2619.031906 100 107 110
-532.632351 1836.471748 2239.700699 156 177 182
270.757699 1748.174667 2714.512634 183 193 200
2111.949539 297.051239 3716.577530 191 205 212
2103.441429 302.901578 3715.036011 21 22 32
285.107517 1752.127457 2733.578300 22 17 23
-2217.011070 2027.801514 1273.232365 53 57 72
-1210.502625 1925.116920 1862.366295 125 141 158
-839.199543 1861.381912 2083.101845 149 167 174
253.047204 1742.649651 2731.192780 32 22 32
-1394.335270 1929.637718 1797.821808 114 142 149
-639.859247 1471.366692 2194.410324 113 135 146
-1695.762634 1941.607857 1646.114540 120 139 147
300.983357 1752.982330 2790.791893 154 173 178
-1544.257832 1934.874344 1742.430305 121 143 146
-107.674241 1758.108521 2559.679222 157 169 175
-1825.155640 1971.631813 1590.499783 131 148 156
-637.921286 1817.147446 2262.731171 22 15 21
-1878.214455 1957.861519 1565.809059 54 86 84
2332.533264 122.948194 3843.771744 191 198 216
-1228.150082 1893.455696 1944.554138 66 74 63
3491.601944 -607.946539 4147.166443 21 8 8
-639.500380 1829.151344 2278.477478 32 17 25
-132.377911 1791.483688 2569.808197 150 163 167
1730.753326 502.507687 3547.526932 137 149 151
-1335.419941 1900.405693 1902.266693 113 138 145
63.059360 1769.591713 2689.252090 149 156 169
70.904940 1763.999939 2693.359184 154 160 176
-3747.068024 2193.185616 584.626436 51 58 57
55.751759 1758.465576 2705.509949 33 38 40
-37.994024 1305.774689 2638.176155 41 56 71
145.127416 1761.576271 2772.203827 157 171 184
52.448249 1754.138184 2720.653343 121 132 140
135.076821 1753.883553 2767.465019 157 171 183
135.076821 1753.883553 2767.465019 157 171 183
-1698.951912 1921.253395 1768.294334 31 39 31
-895.776749 1851.305580 2210.509872 131 130 130
265.931869 1731.871605 2856.237793 12 12 21
-2952.458572 2061.758995 1121.774387 117 134 143
2155.685616 412.780714 3814.918900 62 60 53
3873.391342 -296.565771 4336.162186 120 127 130
-2916.546059 2037.116623 1197.735119 30 46 51
-2935.737801 2044.774055 1189.929104 30 46 51
261.483860 1722.717094 2914.202118 141 162 169
-3080.899048 2005.380058 1185.375595 95 106 126
-1564.173603 1871.195984 1973.056030 96 121 131
2079.357338 269.414639 3619.165802 31 29 30
482.910490 1688.090515 3052.572632 145 163 173
-3337.244034 2053.016090 1143.477821 33 38 35
219.365168 1726.416779 2944.851112 149 165 171
347.784257 1694.165993 3009.303284 123 145 157
584.249163 1665.240288 3130.755424 94 97 82
288.787770 1709.131813 2989.268112 20 14 24
-3221.205902 2030.628395 1235.579014 119 134 138
-3190.178299 2010.296631 1270.024586 123 139 142
-3148.980904 2027.787781 1295.395565 99 110 123
234.989309 1706.489563 2981.624985 79 97 104
251.578665 1708.906174 2993.186188 156 171 177
-1682.988548 1882.777214 2038.120842 69 107 117
-1697.013855 1875.036430 2038.339996 1 17 22
-3268.438339 2022.417068 1276.228905 37 45 40
306.005287 1687.195969 3058.956909 30 26 28
296.598792 1684.422302 3055.983162 143 138 140
10050.586700 -2914.099884 7361.687469 18 26 26
-2830.605125 1974.059677 1588.411999 14 52 70
274.356627 1698.027039 3070.071220 26 24 24
274.356627 1698.027039 3070.071220 26 24 24
-1336.947536 1813.617134 2344.001389 34 52 63
268.718863 1678.536987 3107.879257 83 96 104
10288.320160 782.965040 7288.477325 117 126 129
-28751.022339 -9856.247711 -11184.890747 200 211 209
594.435549 -714.813042 3085.828400 31 39 38
585.749483 -714.316511 3084.681892 31 39 38
231.977153 1557.068729 3097.719383 95 113 124
525.019121 1642.149925 3263.581467 166 178 188
233.964658 1522.397709 3130.621719 160 170 175
233.964658 1522.397709 3130.621719 160 170 175
-1535.285759 1807.333755 2387.952042 33 48 57
-1530.696774 1790.775681 2399.270248 88 108 119
260.707307 1663.356972 3182.657242 151 163 173
-512.350321 2316.133118 2871.372223 28 22 23
-1902.177238 1836.154366 2244.378090 93 114 120
-1902.177238 1836.154366 2244.378090 93 114 120
-1910.710716 1840.606117 2241.959763 93 114 120
435.034370 -105.286372 3135.171890 230 226 221
-1824.345398 1837.127304 2293.386841 88 108 115
380.183816 1665.258980 3253.033829 153 166 174
380.183816 1665.258980 3253.033829 153 166 174
239.880061 1683.362389 3200.736618 23 23 32
-1914.949226 1820.253372 2280.872536 49 57 52
-395.480943 1308.434010 2903.538322 22 35 34
-2417.971039 1853.798103 2075.208282 104 121 129
-2417.971039 1853.798103 2075.208282 104 121 129
322.967792 1650.058556 3240.979767 147 161 167
-2046.705246 1807.625961 2235.108376 97 119 125
82.611799 1499.823952 3154.001427 60 72 76
289.617467 1656.259537 3264.982605 122 134 140
2186.269569 26.370835 3900.775146 163 194 207
237.334061 1665.045166 3253.051376 103 120 127
799.380589 1592.763519 3500.248718 152 173 184
-2982.257271 1882.999039 2001.131248 26 33 26
-2895.592690 1870.490265 2043.728065 36 39 31
-27457.882690 -11690.988922 -8829.795837 159 182 179
-2830.290604 1858.625984 2089.199638 41 45 36
-1709.457207 1773.189545 2555.706978 26 39 44
103.625226 616.160917 3187.177277 127 138 148
350.834107 1628.216362 3380.161667 97 124 142
4731.028748 -1345.583439 4718.390656 48 78 77
3010.847473 -428.513718 3946.420288 92 97 85
-2294.751740 1809.513664 2398.115540 32 49 62
-42874.682617 -12589.315033 -14067.968750 37 53 57
39608.883667 14000.590515 19237.513733 64 79 85
3013.245201 -429.035187 3948.582840 92 97 85
516.298532 1603.550911 3482.637024 175 187 193
375.807500 1204.460144 3430.815125 14 27 44
219.860411 1625.389481 3410.813904 96 107 115
326.929474 1412.679863 3449.771500 124 132 131
317.386794 1038.005161 3424.456406 28 54 85
-17469.699097 -9653.142548 -3707.661438 144 152 155
287.545943 1618.025208 3473.992920 165 176 178
331.538415 1369.661236 3487.339401 215 222 220
8755.606079 -2546.841240 5889.738464 143 155 155
